8.082 12.795 4.462
7.968 12.815 4.463
7.980 12.804 4.463
8.094 12.806 4.459
8.106 12.816 4.465
7.965 12.836 4.462
8.120 12.838 4.461
7.962 12.864 4.461
8.122 12.864 4.464
8.125 12.860 4.463
7.966 12.887 4.458
7.978 12.899 4.455
8.117 12.888 4.463
8.128 12.875 4.470
7.989 12.918 4.464
8.098 12.923 4.465
8.108 12.912 4.463
7.997 12.928 4.459
8.013 12.938 4.462
8.038 12.947 4.462
8.064 12.945 4.462
8.087 12.934 4.462
8.102 12.925 4.457
8.042 12.950 4.453
8.056 12.950 4.455
8.014 12.773 4.491
8.035 12.772 4.490
7.974 12.798 4.478
7.989 12.789 4.488
8.011 12.780 4.487
8.041 12.777 4.488
8.062 12.782 4.488
8.084 12.794 4.489
7.968 12.815 4.487
7.978 12.804 4.487
8.096 12.804 4.489
8.107 12.816 4.487
7.962 12.836 4.484
8.119 12.836 4.488
7.949 12.851 4.478
7.963 12.864 4.492
8.121 12.863 4.489
8.126 12.857 4.484
7.979 12.895 4.498
8.117 12.888 4.487
7.971 12.912 4.480
7.991 12.916 4.489
8.002 12.925 4.497
8.096 12.922 4.488
8.107 12.910 4.487
7.999 12.926 4.485
8.013 12.935 4.487
8.038 12.943 4.488
8.063 12.941 4.488
8.085 12.931 4.487
8.017 12.771 4.511
8.040 12.772 4.512
8.053 12.773 4.518
7.969 12.798 4.508
7.990 12.786 4.511
8.009 12.779 4.510
8.035 12.776 4.509
8.065 12.780 4.511
8.085 12.792 4.514
8.101 12.799 4.521
7.965 12.815 4.513
7.977 12.803 4.510
8.096 12.805 4.511
8.110 12.816 4.512
7.962 12.837 4.514
8.120 12.837 4.511
8.126 12.842 4.510
7.963 12.861 4.514
8.121 12.864 4.513
8.126 12.859 4.516
7.970 12.883 4.511
7.978 12.894 4.513
8.115 12.888 4.513
7.991 12.913 4.512
8.002 12.923 4.516
8.094 12.920 4.513
8.105 12.908 4.513
8.014 12.932 4.512
8.039 12.940 4.512
8.063 12.937 4.513
8.082 12.930 4.512
7.995 12.773 4.535
8.014 12.771 4.538
8.037 12.770 4.540
8.056 12.773 4.540
7.972 12.797 4.533
7.986 12.786 4.538
8.008 12.776 4.534
8.026 12.776 4.526
8.066 12.778 4.534
8.088 12.789 4.535
8.103 12.800 4.528
7.967 12.814 4.538
7.976 12.801 4.533
8.099 12.803 4.537
8.114 12.815 4.537
7.948 12.840 4.536
7.961 12.837 4.537
8.122 12.841 4.539
7.963 12.860 4.536
8.120 12.864 4.538
7.972 12.882 4.537
7.979 12.893 4.536
8.114 12.889 4.537
7.970 12.902 4.530
7.993 12.912 4.537
8.005 12.922 4.540
8.092 12.918 4.537
8.104 12.906 4.537
8.017 12.931 4.536
8.038 12.936 4.538
8.063 12.933 4.537
8.080 12.928 4.537
7.995 12.770 4.560
8.012 12.771 4.562
8.038 12.768 4.561
8.058 12.770 4.564
7.971 12.798 4.566
7.986 12.786 4.562
8.003 12.776 4.553
8.068 12.776 4.559
8.088 12.787 4.565
8.104 12.797 4.564
7.967 12.813 4.559
7.975 12.801 4.559
8.099 12.802 4.560
8.117 12.819 4.562
7.961 12.838 4.563
8.121 12.839 4.564
7.964 12.865 4.566
8.119 12.864 4.563
7.969 12.880 4.561
7.982 12.892 4.563
8.111 12.889 4.563
7.993 12.909 4.559
8.006 12.921 4.562
8.073 12.924 4.575
8.089 12.917 4.564
8.103 12.904 4.562
8.018 12.928 4.561
8.039 12.933 4.562
8.063 12.930 4.562
8.077 12.926 4.562
7.995 12.774 4.597
8.009 12.770 4.586
8.034 12.766 4.588
8.063 12.770 4.589
7.971 12.796 4.588
7.985 12.784 4.588
8.072 12.777 4.584
8.089 12.787 4.588
8.102 12.797 4.585
7.963 12.812 4.585
8.116 12.815 4.587
7.960 12.840 4.585
8.121 12.839 4.588
7.965 12.871 4.593
8.118 12.863 4.588
7.972 12.877 4.583
7.984 12.895 4.590
8.109 12.888 4.588
7.994 12.908 4.587
8.010 12.920 4.588
8.070 12.924 4.591
8.088 12.914 4.588
8.102 12.902 4.585
8.022 12.927 4.584
8.037 12.929 4.587
8.060 12.928 4.587
8.011 12.746 4.615
7.995 12.771 4.612
8.012 12.765 4.612
8.037 12.762 4.613
8.060 12.767 4.615
8.089 12.769 4.603
7.969 12.793 4.615
7.982 12.783 4.611
8.087 12.783 4.614
8.105 12.796 4.615
7.963 12.813 4.615
8.116 12.815 4.614
7.959 12.838 4.612
8.119 12.840 4.613
8.126 12.844 4.606
7.968 12.867 4.610
8.116 12.863 4.613
7.981 12.888 4.611
8.107 12.888 4.612
7.996 12.906 4.613
8.014 12.919 4.611
8.033 12.924 4.618
8.065 12.922 4.614
8.088 12.911 4.612
8.101 12.902 4.606
8.040 12.926 4.610
8.055 12.926 4.609
7.973 12.775 4.644
7.992 12.766 4.637
8.012 12.763 4.636
8.038 12.759 4.638
8.062 12.765 4.637
8.078 12.773 4.635
7.970 12.791 4.639
7.981 12.781 4.636
8.092 12.785 4.638
8.107 12.796 4.638
7.961 12.815 4.640
8.115 12.812 4.637
7.958 12.839 4.641
8.118 12.839 4.638
7.967 12.866 4.639
8.114 12.863 4.637
7.971 12.879 4.636
7.982 12.888 4.639
8.098 12.897 4.641
8.106 12.886 4.638
7.995 12.904 4.639
8.014 12.916 4.637
8.039 12.922 4.638
8.063 12.920 4.637
8.086 12.909 4.637
8.037 12.928 4.637
7.973 12.774 4.655
7.988 12.768 4.664
8.013 12.759 4.662
8.037 12.757 4.663
8.063 12.763 4.663
8.080 12.772 4.662
7.970 12.788 4.662
7.979 12.778 4.658
8.091 12.783 4.665
8.104 12.796 4.666
7.960 12.812 4.662
8.114 12.811 4.664
7.941 12.844 4.665
7.958 12.839 4.660
8.118 12.839 4.661
7.966 12.865 4.661
8.113 12.863 4.662
7.974 12.877 4.659
7.985 12.890 4.662
8.096 12.896 4.664
8.105 12.885 4.663
7.997 12.904 4.662
8.014 12.914 4.662
8.038 12.920 4.663
8.062 12.917 4.663
8.085 12.907 4.661
8.045 12.747 4.677
7.992 12.762 4.687
8.017 12.756 4.687
8.036 12.755 4.687
8.064 12.761 4.690
8.080 12.771 4.687
7.965 12.784 4.684
7.978 12.775 4.686
8.092 12.782 4.686
8.103 12.790 4.689
7.960 12.813 4.681
8.114 12.812 4.689
7.949 12.835 4.697
7.958 12.843 4.694
8.116 12.838 4.687
7.969 12.868 4.688
8.112 12.863 4.687
7.971 12.895 4.692
7.986 12.890 4.689
8.095 12.895 4.688
8.104 12.883 4.686
7.997 12.902 4.685
8.013 12.912 4.687
8.038 12.917 4.688
8.063 12.914 4.688
8.083 12.906 4.687
7.994 12.749 4.708
8.018 12.748 4.716
8.036 12.748 4.711
7.970 12.767 4.721
7.989 12.762 4.712
8.014 12.752 4.709
8.037 12.752 4.707
8.064 12.757 4.710
8.082 12.763 4.707
7.959 12.787 4.718
8.099 12.789 4.719
8.105 12.793 4.715
7.957 12.810 4.714
8.115 12.813 4.713
8.127 12.807 4.701
7.957 12.840 4.708
8.116 12.837 4.713
7.965 12.862 4.711
8.111 12.864 4.712
7.987 12.889 4.712
8.093 12.893 4.713
8.103 12.881 4.711
7.997 12.901 4.710
8.013 12.909 4.713
8.038 12.914 4.713
8.063 12.911 4.713
8.081 12.904 4.711
7.992 12.749 4.747
8.016 12.746 4.739
8.040 12.745 4.736
8.063 12.749 4.736
7.971 12.769 4.736
7.989 12.758 4.739
8.002 12.754 4.744
8.070 12.754 4.742
8.086 12.768 4.743
7.949 12.792 4.747
7.960 12.784 4.732
8.094 12.780 4.742
8.108 12.793 4.739
7.945 12.822 4.746
7.954 12.812 4.744
8.115 12.813 4.736
7.946 12.837 4.732
7.956 12.840 4.741
8.115 12.838 4.737
7.964 12.862 4.737
7.976 12.874 4.742
8.110 12.863 4.738
7.974 12.876 4.734
7.989 12.890 4.737
8.091 12.892 4.739
8.103 12.879 4.737
7.995 12.905 4.735
8.012 12.907 4.737
8.037 12.912 4.737
8.062 12.909 4.738
8.079 12.902 4.737
7.988 12.746 4.770
8.014 12.744 4.764
8.039 12.742 4.762
8.059 12.746 4.770
8.076 12.745 4.773
7.971 12.764 4.763
7.993 12.753 4.760
8.004 12.753 4.760
8.066 12.753 4.761
8.086 12.765 4.763
7.946 12.793 4.763
7.959 12.785 4.764
8.096 12.781 4.764
8.110 12.794 4.763
7.944 12.811 4.764
7.953 12.809 4.757
8.115 12.814 4.764
7.954 12.839 4.766
8.114 12.838 4.763
7.967 12.864 4.763
8.108 12.864 4.763
7.990 12.889 4.763
8.003 12.898 4.770
8.072 12.900 4.768
8.090 12.891 4.763
8.102 12.878 4.763
8.014 12.905 4.763
8.038 12.910 4.762
8.063 12.906 4.764
8.078 12.901 4.760
7.991 12.737 4.782
8.016 12.744 4.787
8.035 12.738 4.789
8.060 12.740 4.783
8.086 12.750 4.791
7.967 12.767 4.790
7.990 12.756 4.781
8.008 12.751 4.775
8.073 12.753 4.786
8.087 12.764 4.788
8.103 12.773 4.785
7.946 12.795 4.784
7.958 12.787 4.790
8.098 12.781 4.788
8.110 12.790 4.787
7.945 12.809 4.783
7.953 12.810 4.789
8.116 12.813 4.787
7.955 12.841 4.791
8.114 12.838 4.788
7.966 12.863 4.789
8.108 12.863 4.788
7.974 12.876 4.781
7.989 12.887 4.787
8.004 12.897 4.789
8.075 12.900 4.781
8.089 12.890 4.788
8.102 12.877 4.787
7.998 12.905 4.793
8.016 12.904 4.788
8.038 12.909 4.788
8.063 12.905 4.788
8.077 12.902 4.786
7.984 12.747 4.815
8.006 12.739 4.814
8.037 12.736 4.812
8.054 12.733 4.810
8.083 12.742 4.811
7.967 12.765 4.813
7.978 12.755 4.811
8.088 12.761 4.812
7.946 12.788 4.814
7.958 12.786 4.811
8.113 12.791 4.813
7.942 12.809 4.815
7.952 12.809 4.812
8.116 12.813 4.813
7.955 12.834 4.808
8.114 12.838 4.812
7.966 12.864 4.809
7.978 12.875 4.816
8.107 12.864 4.813
7.972 12.876 4.800
7.989 12.885 4.813
8.008 12.897 4.815
8.090 12.890 4.812
8.102 12.877 4.814
8.018 12.902 4.811
8.038 12.907 4.812
8.063 12.905 4.812
8.078 12.901 4.816
8.025 12.721 4.850
8.063 12.712 4.828
7.990 12.744 4.836
8.018 12.733 4.840
8.037 12.732 4.836
8.059 12.735 4.844
8.076 12.739 4.833
7.967 12.763 4.836
7.979 12.753 4.831
8.091 12.766 4.835
8.100 12.775 4.846
7.945 12.791 4.836
7.955 12.788 4.833
8.098 12.777 4.839
8.108 12.789 4.840
7.944 12.807 4.832
8.114 12.813 4.839
8.114 12.838 4.838
7.966 12.864 4.835
7.977 12.873 4.840
8.109 12.864 4.837
7.975 12.877 4.830
7.991 12.885 4.837
8.011 12.896 4.838
8.025 12.899 4.843
8.091 12.892 4.837
8.103 12.880 4.840
8.021 12.901 4.834
8.039 12.904 4.836
8.063 12.904 4.837
8.080 12.901 4.839
8.025 12.721 4.872
8.028 12.721 4.859
8.052 12.719 4.856
7.972 12.746 4.862
7.986 12.742 4.866
8.014 12.731 4.861
8.039 12.729 4.861
8.064 12.736 4.863
8.081 12.746 4.867
7.945 12.772 4.852
7.962 12.760 4.865
7.980 12.752 4.864
8.091 12.761 4.863
8.104 12.771 4.863
7.944 12.788 4.861
7.952 12.787 4.862
8.099 12.780 4.859
8.109 12.788 4.862
7.943 12.809 4.869
8.114 12.813 4.861
7.948 12.835 4.869
7.961 12.846 4.867
8.113 12.838 4.863
7.969 12.866 4.862
7.978 12.872 4.862
8.110 12.865 4.862
7.973 12.878 4.870
7.991 12.882 4.862
8.014 12.894 4.863
8.035 12.899 4.865
8.071 12.899 4.867
8.090 12.893 4.863
8.104 12.881 4.862
8.041 12.901 4.859
8.061 12.902 4.862
8.078 12.901 4.852
8.017 12.722 4.891
8.034 12.723 4.890
8.063 12.724 4.886
7.970 12.746 4.888
7.991 12.738 4.885
8.008 12.729 4.882
8.041 12.726 4.882
8.064 12.733 4.888
8.080 12.744 4.888
7.945 12.775 4.881
7.957 12.766 4.890
7.977 12.751 4.882
8.106 12.771 4.884
7.947 12.790 4.883
7.953 12.787 4.887
8.111 12.788 4.888
7.941 12.809 4.885
7.953 12.815 4.890
8.114 12.813 4.886
7.942 12.836 4.899
7.960 12.837 4.898
8.112 12.838 4.885
7.972 12.861 4.888
7.980 12.870 4.887
8.099 12.875 4.898
8.107 12.865 4.885
7.992 12.879 4.887
8.012 12.889 4.888
8.037 12.895 4.888
8.065 12.897 4.887
8.088 12.890 4.888
8.102 12.879 4.885
8.059 12.900 4.878
7.978 12.724 4.920
8.015 12.720 4.913
8.039 12.721 4.912
8.054 12.723 4.918
8.076 12.719 4.916
7.972 12.746 4.910
7.986 12.734 4.912
8.065 12.730 4.912
8.080 12.740 4.912
7.950 12.764 4.921
7.958 12.766 4.914
8.105 12.763 4.916
7.945 12.786 4.917
7.955 12.787 4.914
8.113 12.787 4.912
7.946 12.807 4.914
7.952 12.810 4.909
8.115 12.813 4.912
7.962 12.839 4.910
8.110 12.838 4.914
7.967 12.858 4.905
7.984 12.867 4.911
8.096 12.866 4.918
8.103 12.856 4.912
7.995 12.877 4.909
8.012 12.884 4.912
8.038 12.890 4.912
8.062 12.890 4.912
8.085 12.883 4.911
7.998 12.723 4.941
8.013 12.718 4.939
8.038 12.716 4.937
8.061 12.720 4.939
8.078 12.708 4.947
7.968 12.744 4.939
7.988 12.732 4.938
8.005 12.725 4.926
8.072 12.729 4.938
8.084 12.740 4.940
7.944 12.770 4.933
7.959 12.763 4.938
8.097 12.754 4.945
8.108 12.765 4.938
7.936 12.777 4.931
7.954 12.788 4.935
8.115 12.789 4.939
7.949 12.812 4.937
7.954 12.811 4.939
8.115 12.813 4.938
7.966 12.836 4.941
7.977 12.846 4.939
8.108 12.837 4.938
7.971 12.855 4.928
7.990 12.865 4.939
8.005 12.874 4.940
8.092 12.865 4.939
8.101 12.853 4.936
8.016 12.879 4.938
8.038 12.884 4.939
8.063 12.883 4.938
8.079 12.878 4.935
7.994 12.721 4.965
8.015 12.715 4.959
8.039 12.712 4.957
8.062 12.717 4.960
8.080 12.719 4.965
7.968 12.743 4.963
7.987 12.730 4.959
8.073 12.725 4.955
8.088 12.737 4.958
8.103 12.749 4.963
7.960 12.758 4.962
8.098 12.755 4.958
8.110 12.764 4.963
7.950 12.792 4.972
7.953 12.785 4.962
8.116 12.790 4.962
7.950 12.808 4.972
7.954 12.812 4.964
8.114 12.814 4.962
7.967 12.837 4.962
7.977 12.847 4.970
8.099 12.850 4.962
8.107 12.838 4.962
7.990 12.861 4.963
8.010 12.871 4.964
8.027 12.874 4.972
8.072 12.874 4.966
8.088 12.863 4.963
8.101 12.851 4.963
8.017 12.877 4.957
8.038 12.880 4.962
8.061 12.878 4.962
8.076 12.876 4.958
7.993 12.718 4.987
8.013 12.710 4.988
8.030 12.706 4.987
8.067 12.711 4.985
8.081 12.721 4.984
7.963 12.743 4.985
8.091 12.735 4.988
8.104 12.743 4.991
7.958 12.758 4.987
8.111 12.763 4.986
7.948 12.796 4.979
7.953 12.785 4.989
8.116 12.789 4.987
7.941 12.815 5.000
7.955 12.811 4.986
8.114 12.814 4.989
7.967 12.834 4.987
7.980 12.846 4.992
8.099 12.848 4.990
8.106 12.837 4.987
7.992 12.858 4.986
8.012 12.868 4.988
8.034 12.873 4.991
8.066 12.872 4.989
8.087 12.861 4.987
8.101 12.850 4.977
8.018 12.875 4.995
8.042 12.877 4.983
8.056 12.877 4.981
8.023 12.699 5.024
8.034 12.698 5.015
7.990 12.717 5.013
8.015 12.706 5.015
8.035 12.703 5.015
8.063 12.710 5.015
8.082 12.719 5.016
7.973 12.726 5.024
8.091 12.732 5.011
8.108 12.745 5.011
7.944 12.762 5.015
7.955 12.759 5.010
8.113 12.764 5.012
7.944 12.791 5.019
7.952 12.786 5.014
8.117 12.789 5.013
7.944 12.814 5.018
7.957 12.814 5.012
8.113 12.813 5.013
7.967 12.832 5.014
7.981 12.845 5.012
8.097 12.847 5.014
8.106 12.835 5.012
7.994 12.855 5.013
8.014 12.865 5.012
8.037 12.871 5.013
8.063 12.870 5.012
8.085 12.859 5.012
8.049 12.875 5.003
8.018 12.698 5.037
8.040 12.696 5.043
8.055 12.696 5.037
7.995 12.706 5.044
8.015 12.702 5.037
8.038 12.701 5.032
8.063 12.707 5.032
8.084 12.717 5.033
7.967 12.737 5.040
8.097 12.730 5.041
8.107 12.741 5.040
7.948 12.770 5.028
7.955 12.761 5.039
8.113 12.762 5.038
7.946 12.785 5.038
7.951 12.798 5.041
8.116 12.789 5.039
7.961 12.818 5.040
8.112 12.814 5.038
7.969 12.831 5.039
7.984 12.844 5.039
8.096 12.845 5.038
8.105 12.834 5.037
7.996 12.852 5.037
8.013 12.861 5.037
8.038 12.867 5.038
8.062 12.866 5.037
8.084 12.856 5.036
8.014 12.696 5.059
8.038 12.694 5.065
8.058 12.697 5.062
8.078 12.697 5.060
7.971 12.723 5.067
7.992 12.707 5.061
8.000 12.701 5.054
8.065 12.702 5.058
8.087 12.716 5.064
8.105 12.723 5.070
7.964 12.743 5.061
8.095 12.731 5.063
8.108 12.742 5.062
7.955 12.759 5.063
8.113 12.764 5.062
7.948 12.795 5.060
7.955 12.790 5.065
8.116 12.789 5.063
7.949 12.819 5.051
7.961 12.815 5.063
8.111 12.813 5.063
7.971 12.829 5.062
7.987 12.843 5.062
8.000 12.849 5.068
8.094 12.843 5.063
8.104 12.832 5.061
8.013 12.856 5.062
8.038 12.864 5.062
8.064 12.862 5.062
8.081 12.854 5.063
8.016 12.693 5.089
8.037 12.691 5.088
8.060 12.691 5.088
8.081 12.698 5.093
7.970 12.721 5.089
7.989 12.707 5.088
8.088 12.714 5.088
8.096 12.730 5.083
8.110 12.742 5.086
7.954 12.753 5.085
8.114 12.765 5.086
7.955 12.787 5.079
8.115 12.788 5.088
7.968 12.821 5.089
8.110 12.814 5.088
7.972 12.828 5.084
7.989 12.839 5.087
8.005 12.848 5.091
8.090 12.841 5.089
8.103 12.829 5.086
8.017 12.854 5.087
8.038 12.860 5.087
8.063 12.858 5.088
8.078 12.852 5.085
7.992 12.698 5.114
8.009 12.691 5.112
8.037 12.687 5.113
8.060 12.688 5.106
8.089 12.698 5.109
7.970 12.719 5.113
7.987 12.704 5.112
8.095 12.715 5.114
8.105 12.714 5.117
7.948 12.749 5.122
8.110 12.738 5.114
7.954 12.752 5.109
8.115 12.764 5.114
7.956 12.797 5.102
8.115 12.788 5.112
7.970 12.820 5.114
7.976 12.824 5.115
8.108 12.812 5.113
7.973 12.827 5.101
7.990 12.837 5.112
8.008 12.846 5.115
8.073 12.849 5.117
8.088 12.840 5.113
8.102 12.827 5.111
8.019 12.852 5.111
8.037 12.856 5.112
8.062 12.854 5.113
8.076 12.851 5.106
8.034 12.674 5.141
7.991 12.695 5.136
8.010 12.687 5.136
8.033 12.683 5.134
8.063 12.692 5.138
8.083 12.690 5.142
7.971 12.713 5.136
7.982 12.703 5.134
8.095 12.712 5.141
8.104 12.723 5.135
7.957 12.743 5.138
8.110 12.739 5.138
7.946 12.756 5.135
7.955 12.751 5.127
8.114 12.763 5.138
8.114 12.787 5.138
7.970 12.816 5.137
7.980 12.825 5.142
8.100 12.823 5.146
8.107 12.814 5.138
7.990 12.835 5.136
8.011 12.845 5.139
8.027 12.850 5.147
8.069 12.848 5.141
8.088 12.837 5.138
8.101 12.826 5.133
8.023 12.851 5.132
8.039 12.854 5.136
8.058 12.852 5.135
8.020 12.674 5.165
7.991 12.694 5.163
8.012 12.686 5.162
8.037 12.682 5.164
8.065 12.685 5.163
8.085 12.695 5.165
8.101 12.695 5.167
7.968 12.714 5.159
7.994 12.700 5.150
8.095 12.709 5.165
8.107 12.722 5.164
7.956 12.739 5.161
8.111 12.738 5.162
7.944 12.763 5.152
7.955 12.759 5.163
8.115 12.763 5.164
7.943 12.785 5.156
8.113 12.788 5.163
7.969 12.813 5.163
7.979 12.821 5.164
8.098 12.823 5.166
8.106 12.812 5.162
7.993 12.833 5.164
8.013 12.843 5.163
8.036 12.849 5.166
8.064 12.846 5.164
8.087 12.835 5.162
8.040 12.851 5.158
8.055 12.851 5.155
8.021 12.673 5.189
8.036 12.673 5.190
8.056 12.673 5.178
7.990 12.689 5.190
8.011 12.682 5.186
8.031 12.678 5.181
8.062 12.683 5.186
8.084 12.689 5.189
7.970 12.709 5.186
8.095 12.705 5.191
8.107 12.718 5.190
7.956 12.744 5.187
8.113 12.741 5.187
7.956 12.760 5.185
8.115 12.763 5.187
7.943 12.778 5.183
7.957 12.776 5.187
8.113 12.788 5.188
7.970 12.810 5.190
7.981 12.820 5.188
8.097 12.822 5.189
8.106 12.809 5.187
7.993 12.830 5.188
8.014 12.841 5.188
8.038 12.846 5.188
8.063 12.844 5.187
8.085 12.833 5.188
8.021 12.674 5.212
8.013 12.678 5.209
8.034 12.676 5.203
8.069 12.683 5.212
8.085 12.694 5.211
8.096 12.705 5.213
8.108 12.719 5.212
7.958 12.737 5.213
8.114 12.738 5.213
7.957 12.766 5.210
8.115 12.764 5.214
8.112 12.788 5.213
7.983 12.819 5.212
8.095 12.820 5.212
8.105 12.808 5.212
7.994 12.828 5.213
8.012 12.837 5.213
8.038 12.843 5.213
8.062 12.840 5.213
8.083 12.832 5.211
7.935 12.789 4.081
7.952 12.780 4.084
8.231 13.047 3.142
8.226 13.052 3.149
8.229 13.046 3.170
8.229 13.053 3.167
8.224 13.048 3.195
8.234 13.046 3.189
8.223 13.053 3.192
8.229 13.051 3.187
8.236 13.041 3.213
8.216 13.054 3.212
8.230 13.051 3.208
8.036 12.674 5.215
8.052 12.671 5.218
7.994 12.684 5.215
7.966 12.710 5.215
7.970 12.807 5.214
8.014 12.670 5.239
8.041 12.666 5.230
8.058 12.672 5.239
7.968 12.698 5.234
7.989 12.680 5.242
8.069 12.680 5.236
8.085 12.691 5.240
7.966 12.712 5.242
8.097 12.702 5.235
8.108 12.715 5.238
7.957 12.735 5.238
8.113 12.738 5.238
7.957 12.762 5.237
8.115 12.765 5.237
7.966 12.799 5.246
8.111 12.787 5.238
7.970 12.804 5.239
7.987 12.818 5.239
8.093 12.818 5.238
8.104 12.806 5.237
7.997 12.827 5.235
8.014 12.834 5.238
8.038 12.840 5.237
8.064 12.836 5.237
8.081 12.829 5.237
8.014 12.667 5.260
8.037 12.667 5.265
8.055 12.672 5.264
7.970 12.697 5.263
7.986 12.680 5.262
8.049 12.676 5.269
8.069 12.681 5.261
8.086 12.690 5.261
7.965 12.713 5.264
8.111 12.714 5.265
7.956 12.733 5.260
8.114 12.737 5.262
7.950 12.753 5.261
7.955 12.757 5.265
8.115 12.764 5.263
7.968 12.797 5.263
8.110 12.788 5.263
7.973 12.803 5.262
7.989 12.816 5.263
8.002 12.822 5.271
8.091 12.816 5.263
8.103 12.804 5.260
8.013 12.831 5.262
8.037 12.835 5.263
8.063 12.832 5.262
8.078 12.827 5.262
8.009 12.667 5.288
8.036 12.668 5.292
8.063 12.670 5.287
8.079 12.672 5.285
8.071 12.679 5.283
8.086 12.687 5.281
8.102 12.695 5.281
7.965 12.705 5.279
8.113 12.717 5.283
7.955 12.739 5.276
8.117 12.737 5.288
7.957 12.760 5.285
8.117 12.763 5.288
7.968 12.790 5.288
7.975 12.798 5.297
8.109 12.788 5.288
7.990 12.813 5.286
8.007 12.823 5.290
8.073 12.824 5.292
8.089 12.814 5.287
8.101 12.802 5.285
8.018 12.829 5.286
8.039 12.831 5.288
8.061 12.829 5.287
8.077 12.826 5.276
8.014 12.662 5.308
8.031 12.666 5.304
8.064 12.670 5.313
7.954 12.696 5.323
8.087 12.682 5.310
7.960 12.723 5.323
8.114 12.719 5.312
7.956 12.742 5.314
8.119 12.736 5.311
7.960 12.763 5.314
8.118 12.764 5.311
7.967 12.788 5.311
7.980 12.798 5.314
8.100 12.799 5.311
8.108 12.788 5.312
7.989 12.808 5.311
8.011 12.821 5.314
8.069 12.822 5.314
8.088 12.811 5.312
8.101 12.801 5.306
8.021 12.826 5.309
8.038 12.828 5.313
8.058 12.827 5.311
8.023 12.658 5.350
8.065 12.667 5.330
7.966 12.692 5.342
8.087 12.680 5.326
7.959 12.714 5.336
8.113 12.719 5.341
7.957 12.741 5.338
8.118 12.741 5.338
7.960 12.765 5.339
8.115 12.764 5.338
7.967 12.785 5.336
7.978 12.796 5.340
8.098 12.798 5.342
8.106 12.787 5.336
7.991 12.807 5.336
8.013 12.819 5.338
8.037 12.823 5.340
8.063 12.821 5.338
8.087 12.809 5.336
8.040 12.826 5.330
8.051 12.826 5.332
7.971 12.674 5.357
7.989 12.667 5.358
8.010 12.654 5.370
8.033 12.658 5.354
7.966 12.687 5.363
7.979 12.676 5.350
7.957 12.714 5.361
8.114 12.722 5.364
7.952 12.739 5.360
8.116 12.739 5.362
7.941 12.764 5.368
7.957 12.766 5.364
8.112 12.762 5.363
7.966 12.783 5.362
7.980 12.796 5.361
8.096 12.796 5.362
8.105 12.784 5.362
7.991 12.805 5.361
8.013 12.815 5.363
8.038 12.821 5.363
8.063 12.817 5.363
8.084 12.806 5.363
7.994 12.650 5.385
8.007 12.645 5.394
7.969 12.673 5.389
7.985 12.662 5.389
8.010 12.654 5.390
8.069 12.674 5.399
7.962 12.690 5.386
8.050 12.677 5.382
8.079 12.681 5.397
7.944 12.722 5.393
7.955 12.713 5.388
8.111 12.719 5.387
7.945 12.739 5.394
7.952 12.738 5.388
8.113 12.739 5.389
7.938 12.758 5.381
7.955 12.768 5.385
8.109 12.764 5.388
7.965 12.781 5.387
7.984 12.795 5.387
8.093 12.793 5.388
8.103 12.781 5.387
7.996 12.804 5.388
8.013 12.813 5.388
8.038 12.818 5.387
8.062 12.814 5.387
8.081 12.805 5.386
8.014 12.646 5.418
8.031 12.645 5.414
8.053 12.647 5.420
7.970 12.668 5.417
7.987 12.657 5.412
8.013 12.650 5.402
8.044 12.657 5.416
8.059 12.667 5.415
7.947 12.700 5.423
7.957 12.688 5.413
8.068 12.678 5.410
8.081 12.685 5.405
7.947 12.715 5.412
7.952 12.710 5.412
8.109 12.718 5.413
7.949 12.738 5.415
7.952 12.736 5.409
8.111 12.739 5.412
7.947 12.760 5.412
7.956 12.763 5.415
8.107 12.763 5.411
7.968 12.779 5.413
7.984 12.791 5.413
8.091 12.790 5.413
8.102 12.778 5.409
7.997 12.802 5.413
8.014 12.812 5.413
8.038 12.816 5.413
8.063 12.809 5.412
8.079 12.802 5.411
7.996 12.646 5.437
8.013 12.643 5.440
8.037 12.644 5.437
8.057 12.649 5.438
7.969 12.662 5.439
7.982 12.654 5.436
8.044 12.654 5.426
8.064 12.657 5.438
8.089 12.664 5.442
7.949 12.693 5.440
7.955 12.685 5.436
8.090 12.689 5.448
8.105 12.695 5.448
7.945 12.713 5.437
8.097 12.702 5.448
8.108 12.715 5.438
7.945 12.738 5.438
8.110 12.738 5.438
7.945 12.755 5.442
7.957 12.767 5.437
8.099 12.773 5.438
8.105 12.762 5.437
7.969 12.780 5.439
7.985 12.791 5.438
8.075 12.800 5.427
8.088 12.790 5.438
8.101 12.777 5.433
7.997 12.802 5.439
8.013 12.810 5.438
8.039 12.814 5.438
8.063 12.807 5.438
8.076 12.801 5.436
7.972 12.648 5.471
7.988 12.645 5.461
8.009 12.642 5.461
8.037 12.642 5.463
8.055 12.646 5.465
7.965 12.663 5.462
8.068 12.654 5.463
8.087 12.668 5.466
7.947 12.691 5.464
7.953 12.681 5.462
8.094 12.685 5.464
8.104 12.690 5.465
7.942 12.712 5.463
8.100 12.710 5.458
8.107 12.716 5.463
7.939 12.741 5.462
8.108 12.738 5.463
7.943 12.757 5.464
7.957 12.768 5.463
8.099 12.772 5.464
8.104 12.759 5.463
7.947 12.776 5.465
7.970 12.781 5.463
7.984 12.793 5.463
8.074 12.799 5.465
8.087 12.787 5.463
7.995 12.803 5.465
8.013 12.810 5.463
8.038 12.812 5.463
8.062 12.805 5.464
8.075 12.800 5.462
7.967 12.646 5.491
7.989 12.642 5.488
8.011 12.639 5.488
8.040 12.639 5.485
8.064 12.644 5.489
7.943 12.669 5.490
7.960 12.662 5.487
8.069 12.657 5.481
8.086 12.665 5.487
7.943 12.686 5.488
7.952 12.679 5.479
8.097 12.685 5.480
8.105 12.690 5.488
7.923 12.721 5.497
7.942 12.708 5.487
8.108 12.717 5.487
7.923 12.737 5.497
7.936 12.741 5.488
8.108 12.737 5.487
7.944 12.758 5.486
7.957 12.769 5.487
8.098 12.771 5.488
8.103 12.759 5.487
7.972 12.784 5.486
7.982 12.795 5.486
8.072 12.799 5.489
8.086 12.787 5.488
7.994 12.804 5.485
8.012 12.811 5.487
8.038 12.812 5.487
8.060 12.806 5.488
7.970 12.646 5.513
7.985 12.641 5.511
8.028 12.634 5.511
8.070 12.643 5.501
7.944 12.668 5.512
7.958 12.659 5.511
8.093 12.664 5.501
7.941 12.685 5.509
8.106 12.694 5.508
7.920 12.711 5.514
7.936 12.709 5.512
8.109 12.714 5.514
7.924 12.731 5.515
7.938 12.737 5.513
8.108 12.738 5.513
7.944 12.755 5.515
7.958 12.764 5.512
8.097 12.770 5.514
8.103 12.758 5.512
7.972 12.784 5.513
7.983 12.795 5.513
8.071 12.798 5.511
8.085 12.786 5.512
7.994 12.804 5.513
8.012 12.810 5.512
8.037 12.812 5.511
8.059 12.805 5.513
7.967 12.646 5.542
7.984 12.636 5.540
8.013 12.631 5.539
8.062 12.637 5.547
7.943 12.668 5.536
7.957 12.659 5.539
8.095 12.664 5.549
8.102 12.673 5.548
7.939 12.688 5.538
8.106 12.692 5.535
7.936 12.710 5.537
8.109 12.714 5.537
7.938 12.741 5.537
8.107 12.738 5.538
7.946 12.755 5.539
7.956 12.763 5.538
8.096 12.768 5.538
8.102 12.756 5.536
7.970 12.782 5.538
7.982 12.796 5.537
8.069 12.796 5.538
8.084 12.785 5.537
7.964 12.800 5.525
7.993 12.804 5.537
8.013 12.809 5.537
8.038 12.808 5.537
8.057 12.804 5.537
8.009 12.623 5.567
7.969 12.648 5.560
7.985 12.635 5.565
8.010 12.628 5.566
8.037 12.631 5.562
8.062 12.642 5.564
7.943 12.672 5.565
7.959 12.659 5.564
8.073 12.651 5.562
8.087 12.662 5.562
7.942 12.688 5.561
7.951 12.676 5.574
8.099 12.679 5.565
8.105 12.691 5.563
7.936 12.711 5.563
8.108 12.714 5.564
7.938 12.737 5.560
8.105 12.739 5.562
7.945 12.756 5.558
7.956 12.767 5.561
8.095 12.765 5.564
8.102 12.754 5.562
7.968 12.783 5.562
7.980 12.795 5.559
8.066 12.795 5.564
8.082 12.782 5.563
7.992 12.804 5.559
8.014 12.807 5.561
8.038 12.806 5.561
8.054 12.801 5.560
8.022 12.622 5.582
8.031 12.623 5.577
7.971 12.641 5.589
7.987 12.633 5.588
8.008 12.629 5.588
8.038 12.630 5.586
8.062 12.645 5.592
7.958 12.661 5.588
8.073 12.652 5.589
8.087 12.663 5.585
7.942 12.690 5.584
7.950 12.680 5.590
8.099 12.679 5.584
8.105 12.690 5.588
7.938 12.710 5.586
8.107 12.714 5.588
7.939 12.737 5.587
8.100 12.746 5.589
8.104 12.738 5.588
7.950 12.756 5.578
7.957 12.765 5.588
8.092 12.765 5.589
8.101 12.754 5.584
7.967 12.780 5.586
7.987 12.794 5.589
8.002 12.799 5.590
8.050 12.799 5.593
8.063 12.794 5.588
8.080 12.781 5.588
7.998 12.802 5.581
8.014 12.803 5.588
8.038 12.803 5.587
8.051 12.800 5.579
7.993 12.625 5.621
8.013 12.623 5.614
7.969 12.640 5.612
7.986 12.630 5.612
8.011 12.629 5.611
8.037 12.631 5.611
8.062 12.640 5.616
8.075 12.649 5.622
7.948 12.669 5.608
7.957 12.658 5.611
8.071 12.651 5.616
8.086 12.663 5.614
7.949 12.685 5.618
7.952 12.679 5.609
8.100 12.678 5.611
8.104 12.690 5.614
7.944 12.709 5.613
8.105 12.714 5.613
7.942 12.738 5.612
7.951 12.744 5.602
8.098 12.744 5.613
8.102 12.735 5.612
7.946 12.757 5.612
7.960 12.765 5.613
8.090 12.763 5.613
8.102 12.753 5.613
7.971 12.777 5.615
7.988 12.790 5.612
8.008 12.798 5.614
8.042 12.799 5.614
8.063 12.791 5.613
8.079 12.779 5.611
8.016 12.802 5.609
8.034 12.801 5.610
7.988 12.623 5.640
8.010 12.623 5.639
7.966 12.635 5.638
7.984 12.627 5.635
8.011 12.627 5.636
8.037 12.634 5.639
8.060 12.643 5.640
8.079 12.645 5.638
7.947 12.665 5.645
7.954 12.658 5.637
8.069 12.651 5.639
8.085 12.662 5.638
8.102 12.675 5.645
7.946 12.689 5.638
8.098 12.677 5.640
8.103 12.688 5.639
7.924 12.724 5.648
7.942 12.708 5.636
8.100 12.714 5.626
8.104 12.712 5.638
7.942 12.741 5.641
8.097 12.741 5.639
8.101 12.730 5.638
7.946 12.756 5.644
7.960 12.764 5.640
8.085 12.764 5.638
7.970 12.777 5.638
7.988 12.786 5.638
8.012 12.795 5.638
8.038 12.795 5.637
8.063 12.786 5.638
8.076 12.777 5.634
8.018 12.803 5.633
7.968 12.624 5.664
7.987 12.620 5.664
8.009 12.621 5.663
7.943 12.645 5.667
7.961 12.633 5.662
7.980 12.627 5.657
8.016 12.626 5.658
8.040 12.633 5.664
8.060 12.642 5.661
8.076 12.648 5.657
7.944 12.664 5.661
7.951 12.652 5.656
8.069 12.651 5.654
8.090 12.664 5.660
8.102 12.673 5.665
7.944 12.689 5.662
8.100 12.680 5.661
8.102 12.688 5.664
7.942 12.710 5.665
8.100 12.725 5.650
8.103 12.713 5.662
7.943 12.735 5.663
7.950 12.742 5.672
8.097 12.740 5.663
8.102 12.730 5.664
7.946 12.755 5.661
7.963 12.767 5.663
8.073 12.773 5.665
8.085 12.761 5.662
8.102 12.750 5.651
7.972 12.777 5.664
7.988 12.784 5.662
8.011 12.791 5.663
8.038 12.790 5.663
8.062 12.781 5.663
7.965 12.621 5.689
7.987 12.616 5.688
8.011 12.618 5.688
8.030 12.623 5.689
7.943 12.641 5.687
7.957 12.632 5.687
8.021 12.627 5.686
8.038 12.629 5.686
8.064 12.641 5.691
8.078 12.638 5.678
7.941 12.664 5.687
8.087 12.662 5.687
8.101 12.673 5.688
7.943 12.691 5.687
8.099 12.682 5.693
8.103 12.689 5.688
7.939 12.709 5.689
8.098 12.710 5.688
8.104 12.713 5.688
7.941 12.739 5.686
7.950 12.742 5.682
8.096 12.743 5.687
8.102 12.732 5.688
7.947 12.755 5.685
7.961 12.766 5.686
8.071 12.772 5.689
8.085 12.760 5.688
7.972 12.777 5.685
7.989 12.784 5.688
8.012 12.789 5.687
8.038 12.788 5.688
8.059 12.781 5.687
7.965 12.620 5.713
7.988 12.615 5.713
8.010 12.615 5.714
8.034 12.622 5.716
7.942 12.644 5.713
7.956 12.632 5.713
8.043 12.630 5.710
8.060 12.636 5.711
7.940 12.663 5.712
8.095 12.665 5.715
8.100 12.671 5.721
7.938 12.687 5.713
8.100 12.680 5.702
8.103 12.691 5.711
7.939 12.716 5.713
8.104 12.714 5.713
7.941 12.735 5.713
8.096 12.742 5.714
8.102 12.729 5.710
7.947 12.753 5.717
7.960 12.767 5.713
8.070 12.771 5.713
8.084 12.760 5.711
7.974 12.776 5.711
7.988 12.783 5.713
8.012 12.789 5.712
8.037 12.787 5.711
8.058 12.781 5.709
7.968 12.619 5.736
7.986 12.614 5.738
8.012 12.614 5.737
8.034 12.618 5.738
8.056 12.621 5.727
7.941 12.643 5.736
7.955 12.631 5.738
8.047 12.627 5.737
8.069 12.633 5.735
8.085 12.649 5.733
7.924 12.669 5.743
7.936 12.662 5.737
8.092 12.662 5.737
8.103 12.671 5.735
7.923 12.681 5.740
7.931 12.686 5.741
8.095 12.685 5.741
8.102 12.694 5.736
7.923 12.708 5.733
7.936 12.710 5.740
8.099 12.716 5.743
8.102 12.711 5.738
7.942 12.734 5.739
7.950 12.734 5.738
8.094 12.739 5.739
8.101 12.727 5.730
7.942 12.756 5.744
7.962 12.767 5.737
8.069 12.771 5.737
8.083 12.760 5.738
7.974 12.777 5.731
7.988 12.783 5.737
8.014 12.788 5.737
8.038 12.784 5.739
8.056 12.778 5.736
7.964 12.619 5.764
7.986 12.613 5.761
8.012 12.613 5.761
8.037 12.620 5.760
8.054 12.624 5.769
7.941 12.640 5.764
7.955 12.628 5.762
8.044 12.625 5.770
8.064 12.632 5.763
7.923 12.669 5.773
7.934 12.662 5.763
8.093 12.671 5.753
7.925 12.685 5.763
7.932 12.685 5.764
8.095 12.686 5.762
8.104 12.694 5.761
7.923 12.710 5.768
7.934 12.713 5.761
8.098 12.716 5.763
8.103 12.709 5.761
7.942 12.739 5.765
7.951 12.742 5.763
8.093 12.737 5.762
7.946 12.761 5.764
7.963 12.765 5.763
7.976 12.775 5.774
8.066 12.772 5.762
8.082 12.761 5.761
7.972 12.779 5.771
7.989 12.782 5.763
8.014 12.786 5.764
8.038 12.784 5.762
8.054 12.778 5.762
7.965 12.617 5.787
7.987 12.610 5.784
8.010 12.614 5.784
8.036 12.620 5.790
7.942 12.639 5.783
7.958 12.628 5.777
8.042 12.629 5.789
8.060 12.636 5.788
8.081 12.647 5.800
7.936 12.660 5.787
7.920 12.679 5.776
7.934 12.685 5.785
8.096 12.693 5.787
8.102 12.694 5.790
7.921 12.706 5.782
7.935 12.715 5.785
8.096 12.714 5.788
8.101 12.706 5.788
7.943 12.740 5.787
8.090 12.737 5.789
7.948 12.751 5.783
7.961 12.762 5.787
7.975 12.774 5.798
8.066 12.770 5.786
8.080 12.757 5.786
7.973 12.776 5.787
7.988 12.781 5.788
8.012 12.784 5.789
8.039 12.782 5.786
8.053 12.778 5.784
7.969 12.615 5.817
8.014 12.615 5.812
8.030 12.621 5.812
7.947 12.645 5.817
7.955 12.634 5.817
8.043 12.629 5.812
8.062 12.639 5.812
8.083 12.649 5.817
7.940 12.664 5.814
8.075 12.650 5.823
8.085 12.658 5.812
7.933 12.693 5.815
8.098 12.689 5.813
8.101 12.691 5.815
7.936 12.712 5.814
8.096 12.713 5.813
8.101 12.705 5.816
7.946 12.742 5.811
8.088 12.737 5.813
7.949 12.751 5.815
7.962 12.761 5.812
7.979 12.774 5.817
8.046 12.773 5.816
8.063 12.764 5.814
8.078 12.753 5.811
7.989 12.779 5.813
8.012 12.782 5.812
8.036 12.778 5.811
7.936 12.619 5.842
7.964 12.618 5.838
7.989 12.611 5.840
8.013 12.614 5.838
8.033 12.621 5.836
7.947 12.644 5.839
7.956 12.634 5.838
8.043 12.629 5.838
8.065 12.641 5.838
8.083 12.647 5.838
7.939 12.662 5.840
8.075 12.653 5.839
8.086 12.665 5.838
8.102 12.674 5.836
7.937 12.689 5.840
8.096 12.690 5.838
8.101 12.686 5.837
7.939 12.711 5.837
8.095 12.713 5.837
8.101 12.706 5.838
7.947 12.738 5.835
7.951 12.744 5.846
8.087 12.737 5.838
7.963 12.761 5.837
7.981 12.772 5.840
8.042 12.772 5.837
8.062 12.762 5.837
8.076 12.752 5.834
7.992 12.778 5.837
8.013 12.781 5.837
8.031 12.777 5.836
7.965 12.621 5.862
7.989 12.612 5.861
8.012 12.614 5.862
8.032 12.621 5.860
7.943 12.642 5.862
7.955 12.635 5.864
8.041 12.629 5.861
8.064 12.642 5.864
8.088 12.642 5.851
7.939 12.664 5.864
8.074 12.653 5.863
8.093 12.671 5.852
7.937 12.687 5.864
8.096 12.693 5.862
8.101 12.690 5.857
7.939 12.711 5.862
8.094 12.714 5.863
8.100 12.704 5.860
7.945 12.736 5.864
7.954 12.744 5.860
8.073 12.749 5.869
8.084 12.737 5.862
7.965 12.758 5.862
7.983 12.770 5.863
8.011 12.774 5.872
8.041 12.770 5.863
8.062 12.759 5.862
8.075 12.751 5.852
7.993 12.777 5.860
8.012 12.777 5.862
8.030 12.776 5.861
7.966 12.618 5.891
7.987 12.612 5.889
8.013 12.614 5.887
8.030 12.621 5.887
7.941 12.644 5.888
7.955 12.631 5.888
8.045 12.629 5.886
8.062 12.640 5.888
7.936 12.663 5.890
8.075 12.654 5.893
8.084 12.663 5.887
7.935 12.687 5.889
8.094 12.690 5.886
7.939 12.704 5.887
8.091 12.715 5.889
7.945 12.737 5.889
7.955 12.743 5.889
8.072 12.746 5.890
8.082 12.735 5.886
7.968 12.758 5.886
7.987 12.769 5.887
8.013 12.774 5.891
8.039 12.769 5.888
8.061 12.757 5.886
7.994 12.779 5.883
8.015 12.775 5.882
8.025 12.775 5.880
7.939 12.623 5.914
7.962 12.620 5.911
7.987 12.610 5.910
8.014 12.613 5.911
8.033 12.614 5.910
7.942 12.641 5.910
8.048 12.629 5.908
8.058 12.634 5.914
7.936 12.662 5.911
8.085 12.661 5.917
7.938 12.689 5.914
8.092 12.688 5.913
7.940 12.712 5.912
8.088 12.714 5.913
7.945 12.733 5.913
7.957 12.744 5.915
8.068 12.745 5.913
8.080 12.732 5.911
7.967 12.754 5.911
7.987 12.766 5.912
8.014 12.771 5.913
8.040 12.764 5.912
8.056 12.755 5.911
7.941 12.623 5.935
7.961 12.616 5.934
7.986 12.608 5.938
8.012 12.609 5.936
8.034 12.614 5.938
7.941 12.636 5.938
7.953 12.627 5.946
8.068 12.638 5.942
8.077 12.646 5.938
7.935 12.661 5.934
8.085 12.660 5.937
7.934 12.688 5.936
8.091 12.689 5.939
7.941 12.713 5.938
8.086 12.717 5.938
7.945 12.734 5.934
7.957 12.743 5.937
8.066 12.743 5.939
8.079 12.730 5.934
7.968 12.755 5.936
7.987 12.764 5.937
8.013 12.768 5.938
8.039 12.762 5.937
8.054 12.754 5.936
8.088 12.586 5.971
7.944 12.624 5.964
7.959 12.617 5.963
7.989 12.606 5.959
8.017 12.609 5.960
8.036 12.612 5.960
8.055 12.617 5.964
7.941 12.633 5.963
8.067 12.635 5.966
8.078 12.648 5.965
7.931 12.664 5.963
8.086 12.665 5.963
7.934 12.690 5.961
8.089 12.687 5.962
7.941 12.713 5.963
8.083 12.715 5.963
7.948 12.727 5.964
7.957 12.741 5.962
8.063 12.741 5.963
8.077 12.728 5.960
7.969 12.754 5.963
7.987 12.762 5.962
8.014 12.766 5.963
8.039 12.758 5.963
8.052 12.752 5.960
7.986 12.598 5.996
8.087 12.585 5.984
7.948 12.619 5.993
7.962 12.614 5.989
7.984 12.604 5.988
8.013 12.604 5.989
8.037 12.611 5.991
8.058 12.621 5.980
8.088 12.608 5.989
7.938 12.632 5.985
8.067 12.634 5.990
8.079 12.640 5.987
7.932 12.667 5.987
8.085 12.664 5.989
7.936 12.687 5.987
8.087 12.689 5.988
7.942 12.713 5.988
8.082 12.714 5.988
7.948 12.735 5.992
7.959 12.741 5.987
8.049 12.749 5.991
8.062 12.740 5.987
8.076 12.726 5.982
7.972 12.753 5.988
7.987 12.761 5.987
8.012 12.764 5.988
8.038 12.756 5.987
8.051 12.752 5.984
7.969 12.599 6.016
7.990 12.595 6.016
8.014 12.598 6.016
8.028 12.597 6.019
8.092 12.581 6.005
7.947 12.619 6.014
7.962 12.610 6.011
7.982 12.603 6.008
8.019 12.602 6.009
8.037 12.610 6.013
8.059 12.622 6.014
8.086 12.616 6.011
7.936 12.636 6.013
8.069 12.632 6.009
8.086 12.638 6.015
7.918 12.661 6.018
7.931 12.669 6.013
8.085 12.665 6.016
7.935 12.687 6.013
8.086 12.688 6.013
7.941 12.712 6.013
8.072 12.723 6.016
8.080 12.711 6.011
7.946 12.731 6.013
7.961 12.742 6.013
8.046 12.747 6.017
8.059 12.738 6.011
7.974 12.752 6.011
7.987 12.759 6.013
8.013 12.762 6.012
8.035 12.755 6.012
7.967 12.597 6.045
7.984 12.596 6.033
8.012 12.597 6.034
7.943 12.618 6.040
7.960 12.607 6.034
8.022 12.601 6.038
8.038 12.608 6.038
8.057 12.620 6.036
8.081 12.618 6.039
7.933 12.633 6.035
8.069 12.634 6.039
8.081 12.638 6.041
7.920 12.663 6.025
7.929 12.667 6.038
8.074 12.655 6.043
8.083 12.663 6.038
7.933 12.688 6.039
8.083 12.688 6.039
7.941 12.713 6.038
8.071 12.719 6.039
8.079 12.707 6.036
7.947 12.726 6.039
7.962 12.742 6.038
8.044 12.746 6.039
8.059 12.735 6.036
7.987 12.756 6.038
8.012 12.758 6.037
8.031 12.753 6.038
7.961 12.596 6.071
7.981 12.591 6.067
8.038 12.597 6.066
7.941 12.614 6.059
7.958 12.603 6.060
8.042 12.610 6.063
8.058 12.616 6.059
8.077 12.622 6.069
7.923 12.635 6.060
7.929 12.640 6.061
8.070 12.632 6.060
8.080 12.643 6.058
7.920 12.660 6.073
7.927 12.663 6.062
8.082 12.662 6.061
7.932 12.688 6.063
8.081 12.690 6.064
7.940 12.713 6.060
8.069 12.717 6.064
8.078 12.704 6.062
7.940 12.728 6.062
7.962 12.740 6.064
7.977 12.749 6.062
8.041 12.744 6.062
8.057 12.732 6.061
7.989 12.754 6.062
8.012 12.755 6.062
8.028 12.751 6.061
7.972 12.592 6.088
7.987 12.590 6.090
7.937 12.616 6.093
8.010 12.605 6.083
8.044 12.612 6.084
8.062 12.631 6.077
8.078 12.641 6.081
7.918 12.667 6.077
8.082 12.662 6.085
7.922 12.687 6.090
7.930 12.690 6.081
8.080 12.689 6.088
7.937 12.713 6.088
8.067 12.715 6.087
8.079 12.706 6.084
7.936 12.734 6.091
7.963 12.739 6.087
7.981 12.748 6.089
8.022 12.749 6.093
8.038 12.742 6.085
8.055 12.730 6.085
7.990 12.752 6.086
8.011 12.752 6.086
8.025 12.751 6.075
7.941 12.600 6.111
7.963 12.589 6.121
7.990 12.586 6.112
8.026 12.592 6.115
7.944 12.605 6.109
7.954 12.601 6.117
8.019 12.602 6.111
8.041 12.606 6.120
8.073 12.632 6.113
8.079 12.664 6.110
7.928 12.697 6.104
8.074 12.696 6.115
8.080 12.689 6.112
7.937 12.715 6.109
8.071 12.705 6.105
8.083 12.707 6.118
7.942 12.733 6.109
7.962 12.738 6.111
7.985 12.747 6.113
8.008 12.749 6.116
8.040 12.736 6.111
8.053 12.727 6.113
8.077 12.730 6.119
7.992 12.752 6.106
8.010 12.751 6.104
7.962 12.590 6.139
7.984 12.586 6.143
8.013 12.592 6.139
8.035 12.597 6.138
7.924 12.615 6.146
8.035 12.601 6.136
7.923 12.640 6.142
8.078 12.641 6.137
8.079 12.665 6.133
7.927 12.693 6.146
8.086 12.693 6.128
7.935 12.711 6.144
8.052 12.724 6.140
8.089 12.710 6.136
7.965 12.736 6.138
7.988 12.745 6.137
8.005 12.747 6.131
8.039 12.732 6.137
8.055 12.727 6.149
8.003 12.751 6.139
7.935 12.597 6.168
7.965 12.587 6.163
7.987 12.584 6.164
8.014 12.591 6.163
8.035 12.597 6.162
7.920 12.618 6.164
8.038 12.601 6.158
8.072 12.622 6.155
7.918 12.639 6.165
8.074 12.641 6.161
8.077 12.637 6.165
7.920 12.663 6.164
8.074 12.652 6.174
8.078 12.660 6.164
7.920 12.685 6.162
7.927 12.690 6.161
8.074 12.686 6.164
8.076 12.676 6.152
7.941 12.714 6.161
7.954 12.724 6.167
8.043 12.725 6.166
8.090 12.721 6.153
7.967 12.736 6.162
7.984 12.741 6.161
8.035 12.731 6.162
8.051 12.725 6.154
7.978 12.572 6.184
8.008 12.569 6.194
7.936 12.594 6.187
7.963 12.584 6.187
7.986 12.580 6.188
8.014 12.586 6.189
8.039 12.592 6.188
8.056 12.598 6.199
7.921 12.620 6.191
7.928 12.607 6.186
8.063 12.611 6.196
8.076 12.608 6.200
7.920 12.638 6.184
8.072 12.639 6.185
8.079 12.643 6.181
7.919 12.663 6.188
8.074 12.655 6.190
8.080 12.665 6.193
7.924 12.681 6.191
7.930 12.691 6.184
8.069 12.693 6.186
8.085 12.679 6.198
7.942 12.711 6.185
7.950 12.717 6.196
7.942 12.727 6.176
7.970 12.734 6.188
7.981 12.739 6.182
8.023 12.736 6.193
8.034 12.729 6.184
7.987 12.573 6.212
8.012 12.570 6.213
8.040 12.560 6.213
8.056 12.564 6.214
7.962 12.578 6.210
7.989 12.577 6.206
8.010 12.579 6.208
8.040 12.590 6.213
7.927 12.604 6.210
7.918 12.638 6.212
8.072 12.638 6.212
7.919 12.662 6.214
8.073 12.658 6.213
7.923 12.678 6.210
7.929 12.691 6.212
7.940 12.706 6.213
7.953 12.720 6.209
7.969 12.732 6.210
7.985 12.739 6.207
8.023 12.735 6.207
8.030 12.730 6.210
8.224 13.097 3.542
8.220 13.116 3.541
8.224 13.101 3.551
7.972 12.573 6.221
7.935 12.591 6.215
8.061 12.585 6.218
7.920 12.614 6.215
8.066 12.612 6.218
8.076 12.648 6.221
8.090 12.687 6.216
8.095 12.712 6.220
8.098 12.727 6.215
7.955 12.575 6.243
7.994 12.570 6.233
8.006 12.565 6.230
8.042 12.565 6.240
8.057 12.562 6.237
7.918 12.597 6.242
7.935 12.589 6.239
7.957 12.578 6.234
8.012 12.579 6.241
8.039 12.589 6.238
8.062 12.592 6.235
7.920 12.612 6.238
7.926 12.602 6.226
8.069 12.612 6.238
7.916 12.637 6.239
8.073 12.631 6.233
8.078 12.640 6.241
7.917 12.662 6.238
8.072 12.659 6.235
8.082 12.662 6.240
7.924 12.678 6.239
7.929 12.689 6.238
8.088 12.688 6.244
8.101 12.694 6.234
7.944 12.708 6.238
7.957 12.720 6.235
8.047 12.711 6.249
8.055 12.707 6.240
8.095 12.711 6.242
8.107 12.715 6.239
7.968 12.729 6.236
7.984 12.734 6.238
8.022 12.731 6.237
8.029 12.728 6.229
7.960 12.571 6.274
8.007 12.569 6.253
8.048 12.561 6.255
8.059 12.563 6.261
7.924 12.596 6.269
7.934 12.586 6.262
8.016 12.577 6.254
8.043 12.587 6.254
8.066 12.585 6.267
7.919 12.611 6.262
8.072 12.608 6.268
8.076 12.625 6.265
7.915 12.637 6.263
8.082 12.641 6.257
7.918 12.663 6.262
8.071 12.665 6.261
8.089 12.668 6.255
7.923 12.683 6.261
7.931 12.691 6.264
8.095 12.688 6.256
8.102 12.694 6.263
7.940 12.707 6.264
7.958 12.719 6.264
8.044 12.713 6.264
8.052 12.705 6.261
8.098 12.708 6.254
8.108 12.714 6.262
7.968 12.727 6.258
7.990 12.734 6.263
8.020 12.732 6.256
8.036 12.728 6.254
7.949 12.572 6.284
7.961 12.570 6.288
7.982 12.565 6.281
8.046 12.559 6.283
8.066 12.563 6.286
8.075 12.573 6.297
7.921 12.595 6.289
7.933 12.583 6.287
7.953 12.576 6.283
8.043 12.578 6.276
8.070 12.585 6.288
8.078 12.590 6.296
7.916 12.613 6.287
8.074 12.612 6.276
8.081 12.612 6.293
7.915 12.637 6.287
8.086 12.637 6.291
7.917 12.662 6.287
8.071 12.672 6.283
8.093 12.658 6.294
8.101 12.670 6.295
7.923 12.679 6.286
7.932 12.689 6.288
8.072 12.676 6.276
8.099 12.680 6.294
8.107 12.691 6.294
7.944 12.706 6.285
7.957 12.716 6.289
7.977 12.725 6.297
8.022 12.722 6.296
8.038 12.715 6.287
8.051 12.707 6.285
8.116 12.713 6.293
7.966 12.729 6.286
7.988 12.731 6.288
8.016 12.726 6.300
8.028 12.725 6.280
7.940 12.572 6.316
7.957 12.564 6.317
7.977 12.558 6.318
8.021 12.559 6.316
8.031 12.571 6.315
8.072 12.561 6.313
8.079 12.571 6.317
7.921 12.591 6.312
7.930 12.580 6.310
8.040 12.578 6.313
8.060 12.588 6.313
8.087 12.590 6.312
7.915 12.612 6.312
8.074 12.605 6.317
8.092 12.612 6.310
7.915 12.637 6.312
8.095 12.633 6.307
8.107 12.638 6.317
7.919 12.661 6.312
7.925 12.675 6.324
8.069 12.672 6.312
8.096 12.658 6.303
8.113 12.662 6.315
7.924 12.679 6.310
7.933 12.688 6.312
8.068 12.675 6.322
8.117 12.685 6.309
7.944 12.702 6.309
7.960 12.714 6.314
7.982 12.723 6.322
8.018 12.722 6.314
8.036 12.713 6.312
8.121 12.708 6.302
7.968 12.729 6.303
7.986 12.728 6.315
7.999 12.549 6.336
8.038 12.548 6.346
7.918 12.573 6.327
7.939 12.569 6.340
7.967 12.555 6.344
7.979 12.553 6.341
8.019 12.561 6.341
8.036 12.570 6.342
7.918 12.591 6.338
7.929 12.578 6.342
8.041 12.577 6.336
8.061 12.587 6.336
8.092 12.587 6.336
7.913 12.611 6.338
8.072 12.606 6.337
8.087 12.616 6.337
7.913 12.637 6.338
8.087 12.632 6.337
7.920 12.663 6.337
8.069 12.673 6.337
7.933 12.687 6.337
7.944 12.701 6.339
7.962 12.713 6.337
7.985 12.722 6.339
8.014 12.720 6.337
8.036 12.710 6.336
7.988 12.727 6.338
7.982 12.549 6.368
8.011 12.550 6.372
8.036 12.541 6.367
7.918 12.567 6.373
7.938 12.567 6.364
7.961 12.558 6.363
7.990 12.553 6.364
8.014 12.558 6.360
8.038 12.564 6.364
8.060 12.567 6.358
7.918 12.588 6.364
7.927 12.576 6.360
8.050 12.578 6.360
8.069 12.581 6.364
8.088 12.588 6.362
7.911 12.613 6.365
7.912 12.637 6.363
7.920 12.662 6.362
8.067 12.673 6.361
7.923 12.683 6.358
7.934 12.687 6.362
7.946 12.701 6.364
7.965 12.712 6.363
7.992 12.719 6.364
8.012 12.718 6.362
8.034 12.709 6.362
7.994 12.727 6.364
7.949 12.550 6.382
7.971 12.547 6.386
7.986 12.545 6.387
8.009 12.544 6.382
8.042 12.542 6.381
8.066 12.539 6.384
8.090 12.536 6.390
7.925 12.573 6.384
7.934 12.563 6.385
7.960 12.554 6.384
8.012 12.552 6.386
8.045 12.562 6.385
8.061 12.561 6.384
8.091 12.561 6.380
7.914 12.590 6.389
8.071 12.587 6.378
8.091 12.584 6.383
7.909 12.613 6.387
8.085 12.615 6.382
7.911 12.637 6.387
8.091 12.634 6.387
7.916 12.661 6.387
7.926 12.674 6.397
8.066 12.673 6.384
7.937 12.687 6.388
7.953 12.697 6.392
8.067 12.676 6.395
7.942 12.701 6.377
7.963 12.708 6.387
7.990 12.717 6.387
8.013 12.715 6.387
8.034 12.707 6.386
7.949 12.550 6.409
7.961 12.541 6.414
7.994 12.525 6.412
8.016 12.539 6.408
8.036 12.540 6.413
8.062 12.536 6.413
7.923 12.571 6.411
7.933 12.559 6.415
7.956 12.551 6.405
8.040 12.554 6.406
8.059 12.561 6.407
8.081 12.559 6.408
7.913 12.588 6.412
8.084 12.579 6.409
7.908 12.614 6.412
8.098 12.624 6.406
7.909 12.637 6.412
8.094 12.630 6.417
7.917 12.661 6.412
7.923 12.684 6.420
7.933 12.683 6.414
7.955 12.696 6.415
8.041 12.700 6.413
8.068 12.677 6.403
7.968 12.704 6.414
7.992 12.713 6.412
8.014 12.711 6.414
8.034 12.704 6.412
7.998 12.523 6.426
8.024 12.518 6.437
8.029 12.522 6.444
8.053 12.514 6.437
7.944 12.547 6.440
7.960 12.539 6.441
7.987 12.534 6.438
8.010 12.538 6.440
8.038 12.532 6.436
8.063 12.537 6.437
8.087 12.549 6.432
7.922 12.570 6.439
7.931 12.558 6.437
8.074 12.556 6.432
8.090 12.563 6.435
7.912 12.586 6.435
7.899 12.617 6.430
7.907 12.613 6.436
7.907 12.638 6.437
7.915 12.664 6.436
7.922 12.685 6.436
7.937 12.684 6.436
7.961 12.696 6.437
8.038 12.700 6.426
7.973 12.702 6.437
7.992 12.709 6.436
8.013 12.708 6.438
8.032 12.704 6.430
7.993 12.523 6.472
8.014 12.521 6.466
8.031 12.517 6.460
8.066 12.520 6.467
7.944 12.542 6.466
7.960 12.535 6.461
7.990 12.526 6.461
8.014 12.532 6.455
8.084 12.539 6.469
8.110 12.531 6.473
7.919 12.568 6.463
7.930 12.555 6.458
7.911 12.587 6.463
7.906 12.613 6.461
7.907 12.638 6.463
7.916 12.661 6.463
7.927 12.674 6.457
7.937 12.682 6.463
7.962 12.694 6.462
8.028 12.699 6.466
7.965 12.701 6.471
7.993 12.705 6.462
8.013 12.705 6.461
8.030 12.702 6.461
8.029 12.495 6.497
7.970 12.523 6.496
7.988 12.517 6.489
8.010 12.509 6.486
8.036 12.506 6.484
8.067 12.515 6.488
8.081 12.521 6.485
8.130 12.522 6.499
7.939 12.543 6.488
7.962 12.529 6.486
7.977 12.525 6.482
8.109 12.541 6.495
7.919 12.567 6.487
7.929 12.555 6.488
8.131 12.557 6.496
7.911 12.586 6.488
7.895 12.611 6.495
7.904 12.612 6.489
7.905 12.637 6.487
7.916 12.661 6.489
7.928 12.673 6.487
7.936 12.681 6.490
7.963 12.692 6.488
7.985 12.697 6.496
8.021 12.699 6.493
8.031 12.697 6.488
7.969 12.701 6.482
7.994 12.703 6.485
8.011 12.702 6.486
8.030 12.701 6.482
7.997 12.497 6.515
8.012 12.491 6.513
8.037 12.489 6.515
8.063 12.495 6.514
7.966 12.519 6.517
7.984 12.507 6.513
8.085 12.508 6.510
8.125 12.509 6.517
7.939 12.540 6.513
7.958 12.527 6.510
8.138 12.538 6.516
7.921 12.566 6.511
7.928 12.554 6.517
7.898 12.590 6.516
7.912 12.588 6.513
7.895 12.611 6.506
7.905 12.613 6.512
7.903 12.638 6.513
7.912 12.660 6.514
7.928 12.673 6.513
7.939 12.683 6.515
7.959 12.691 6.514
7.992 12.697 6.511
